-41.333084 -7.056167 6.660201 
-43.829739 -1.588287 6.198660 
-42.403580 -3.946846 7.486777 
-41.783325 -2.456586 1.807551 
-41.665665 1.483673 4.836921 
-44.267300 -0.475439 10.450686 
-42.910442 -3.175653 5.953506 
-40.268578 -7.077819 4.286517 
-42.266544 -2.681363 3.216275 
-42.735294 -0.271113 2.781246 
-41.551163 -1.222116 8.225162 
-43.308407 -2.811414 10.793979 
-42.851273 -0.489419 0.795070 
-41.028229 -0.557502 -0.327105 
-44.453728 2.771591 6.592865 
-42.580280 -4.369661 8.692236 
-42.555943 2.374665 5.959671 
-43.685684 3.904227 6.552197 
-44.361576 3.719231 5.411927 
-37.041790 -1.224273 3.197405 
7.567008 -6.537714 -9.707918 
-34.927593 -10.009965 -5.789874 
-37.638355 1.359555 1.226270 
-22.495493 -13.362405 5.274403 
2.414100 -4.850018 -8.734727 
-32.742554 -8.510766 -7.277558 
-37.371494 1.553524 2.206803 
7.232418 -3.835106 -11.271749 
-35.106709 -5.215787 -6.387202 
-39.120270 -4.938879 -1.904629 
-36.632233 -9.924994 -3.184400 
-39.205837 0.149479 6.330258 
-39.935902 -1.748620 7.183985 
5.879174 -3.414103 -7.571950 
-41.312687 1.633143 8.970628 
-8.241844 -22.475885 -12.898159 
-40.352482 1.977003 6.387640 
-32.559647 -21.477747 0.319601 
-8.466896 -20.596533 -10.515565 
-18.935234 -22.993029 -9.100032 
9.405423 -3.445161 -10.027020 
8.947583 -4.427631 -9.607886 
-42.058464 2.702682 6.061512 
-37.348179 1.173672 2.787743 
-0.090750 -4.597556 -6.044207 
-18.951813 -22.379353 12.891946 
-36.815586 -4.277564 -3.724006 
-0.950622 -21.686163 -14.861493 
-1.972327 -18.540955 -12.343541 
-35.142822 -4.472971 -5.937775 
-24.635406 -24.171724 -3.473305 
-41.464607 1.946972 5.615784 
-14.565149 -14.402180 7.671904 
-7.639016 -14.702512 -19.926279 
-41.590324 3.548598 5.584242 
-12.667545 -19.336346 -15.917285 
-12.626019 -15.932840 -16.765455 
1.223835 -2.696208 -6.572141 
-1.653015 -2.881336 -5.868588 
-16.090673 -23.242172 7.856410 
1.473338 -6.017545 -9.165812 
-19.138615 -23.057095 -6.833266 
-22.986074 -22.612207 -1.120536 
-0.221960 -1.913893 -8.448443 
-10.295439 -23.711569 12.818290 
-29.970318 -6.442864 3.103435 
-13.726482 -23.820990 10.047629 
-15.747114 -23.933702 10.710970 
5.100100 -1.908047 -7.746191 
-10.538453 -17.955782 8.848539 
-23.022749 -13.152887 -11.032251 
-19.114513 -12.864079 -1.767592 
-27.242622 -3.219421 0.787473 
-9.305658 -22.231552 9.727590 
-28.091908 -24.470644 2.560571 
-15.465835 -22.618387 -9.037707 
-24.934896 -3.956816 -0.283980 
-2.580317 -23.325146 13.227897 
-23.395111 -2.447326 -1.587723 
-17.882677 -21.455252 -5.908299 
-20.447376 -21.307659 -3.587625 
-27.417856 -1.205469 -1.941732 
-26.592907 -0.503624 -3.447282 
-32.559460 -19.210249 10.651463 
-14.923062 -20.854946 -7.516816 
-0.573804 -21.282509 11.841801 
-24.406364 -12.532084 16.563347 
-22.912394 1.351758 -1.481681 
-35.272430 -18.406811 8.033120 
-21.195393 -16.478205 15.364657 
-9.145333 -17.438730 -8.458591 
-19.037729 -2.158531 -3.273821 
-35.806671 -15.568319 -2.402660 
-20.981970 0.081493 -2.704127 
-14.871131 -21.995319 -13.352598 
-13.915749 -21.012407 -14.104769 
-13.211071 -19.319252 -15.373569 
-6.034584 -13.862071 -7.856101 
-36.327129 -16.956381 1.636250 
-25.917265 -20.842796 -9.101974 
-21.647717 -8.450699 17.658274 
-17.146473 0.994180 -2.015246 
-28.541401 -6.606376 7.714490 
-3.690598 -17.672308 21.821903 
-29.889402 -4.987916 9.392583 
-25.157341 -9.080514 7.195908 
-15.270999 -10.955575 -14.072659 
-25.544558 -24.699125 -1.261000 
-28.258741 -4.340181 11.248072 
-26.405783 -3.528536 12.789095 
-26.113750 -3.962429 12.251635 
-24.319284 -3.565166 13.724874 
-26.844841 -25.010489 0.592967 
-25.364628 -24.697439 1.062468 
-28.583675 -16.197193 -9.269659 
-8.556072 -20.529612 18.101702 
-23.719416 -24.400837 4.118563 
-3.200124 -22.374798 16.950827 
-24.868534 -11.710355 1.766931 
-22.653698 -3.823658 13.544767 
-24.007189 -2.575891 14.136482 
-22.364237 -23.365742 3.875773 
-3.343950 -19.935528 20.023249 
-12.587641 -8.165177 19.667589 
-19.241764 -9.614844 8.789599 
-23.317289 -22.540657 1.447337 
-22.720716 -23.148481 0.101132 
-12.394970 -11.509321 -15.909714 
-14.369803 -21.325651 7.705797 
-11.317775 -9.864193 20.002832 
-22.337128 -20.358740 1.055824 
-21.320225 -4.820201 12.054683 
-13.646323 -18.034273 -16.002338 
-19.653885 -3.688610 12.703633 
-12.006869 -9.319578 -15.224280 
-12.157731 -13.258689 19.588675 
-18.088364 -3.692056 13.833809 
-22.572649 -20.616508 -0.715214 
-7.602895 -4.780357 12.590528 
-39.907749 -8.632198 2.221307 
-22.185728 -20.884663 2.912189 
-39.419903 -10.499113 4.895894 
-12.437485 -4.038596 12.655532 
-14.743050 -3.717738 13.242611 
-23.128542 -17.974112 -0.035986 
-17.023354 -3.762645 12.621801 
1.868433 -21.734829 -19.679419 
-18.093674 -20.339249 -4.946064 
-40.026875 -5.651342 1.472622 
-39.622055 -9.084331 7.646016 
-14.737195 -15.162704 -4.205084 
1.587289 -20.370863 -15.396054 
-9.410290 -13.672692 -6.124768 
0.653843 -5.660763 13.561857 
-17.114435 -6.918395 -2.543246 
-29.195915 -8.802168 -9.452632 
-30.487673 -7.087980 4.285322 
-3.994592 -12.060658 23.504766 
-28.984850 -8.630634 4.523160 
-30.437365 -6.233860 7.411108 
4.613485 -18.504688 -16.612724 
-1.917263 -4.671494 13.655051 
-28.734730 -23.317539 8.121235 
-9.000367 -6.020210 -4.938551 
-16.703699 -3.232267 -2.940532 
2.308133 -16.080936 -13.362082 
-2.941130 -11.802598 -8.229366 
-14.942823 -3.038956 -4.136806 
2.826978 -21.735472 -18.138702 
8.609859 -22.115068 -22.525131 
-30.726345 -1.749759 0.793106 
-18.579659 -22.579683 5.746631 
11.438399 -22.931046 -23.663710 
11.906796 -23.694933 -22.510019 
0.902202 -19.009439 11.908445 
-0.328127 -11.994202 12.151539 
12.271824 -23.069704 -22.005732 
-41.351250 -3.048570 0.021887 
-37.247898 -1.807643 -0.856386 
-36.839172 -2.052468 -2.365657 
11.267432 -22.115679 -21.512691 
6.312612 -21.545567 -19.474623 
9.318703 -19.526880 -19.764442 
10.813337 -20.840572 15.959579 
-36.796333 -1.779158 -4.509382 
-28.892950 -20.135519 11.922535 
9.919394 -22.019539 17.169090 
11.894767 -12.689008 -20.584875 
-29.008600 -18.681925 12.035027 
-4.211057 -6.358984 -6.618333 
9.516190 -15.569222 16.099949 
0.000465 -19.972584 -21.011435 
-35.707100 -0.929672 -0.156413 
-31.237133 -13.433095 16.261808 
-34.218369 0.499551 -0.416146 
-23.420706 -17.965000 1.251242 
-38.655769 -10.968691 10.162800 
-22.938358 -16.408411 0.617882 
-35.235188 -1.108302 1.502865 
7.597200 -19.893719 20.477961 
-34.437672 -2.089266 2.983885 
-24.330734 -13.900827 3.621086 
8.070059 -16.523056 -25.313807 
2.725930 -13.184664 -11.637481 
-29.735565 -2.551843 1.494863 
12.025152 -20.042213 -25.806988 
-28.419352 -1.877336 0.076395 
-22.576792 -17.187624 3.727721 
10.413162 -11.842930 17.530664 
-34.053223 -0.132225 -0.303848 
-11.826842 -4.055754 -5.340465 
-13.664293 -3.572563 -4.072771 
8.582659 -12.784891 -15.887033 
-30.925856 1.434369 0.633986 
8.300374 -15.387185 23.267624 
-33.772079 -13.161272 14.062806 
0.658680 -17.527813 22.271652 
-28.597368 0.798798 -0.688191 
-41.845612 -3.003505 11.782071 
2.190901 -13.169413 24.893936 
-8.697339 -4.931638 -5.982016 
7.065829 -11.183401 -12.546454 
-37.983196 -2.670149 8.984488 
5.188827 -7.621040 -10.467343 
-13.154382 -22.507809 -12.538701 
-34.772690 -14.095304 -5.755622 
-38.370731 -0.372067 12.106606 
-35.056808 -3.456331 11.581794 
-36.467693 -2.823475 9.740415 
-12.063562 -22.832335 -12.052686 
11.819196 -8.323006 -15.672329 
-39.221779 -0.327768 9.266803 
-34.187462 -8.902200 16.705360 
10.198272 -6.828751 -14.238818 
-10.851444 -22.124172 -10.800600 
-30.937168 -7.883442 18.636019 
-7.711921 -2.451894 -6.161122 
-8.078125 -0.102675 -4.004415 
-6.588219 -1.939423 -5.178673 
-2.085604 -1.812956 13.286104 
-0.574132 -1.854110 15.890969 
-3.451856 -2.727949 -4.627153 
-36.565464 -12.751545 12.628034 
-30.006041 -22.120443 -5.744101 
-20.333666 -24.026239 7.290359 
-12.614937 -22.180759 -14.114172 
-34.412888 -4.052028 6.512180 
2.733341 -8.115339 -9.289698 
-29.957359 -23.829786 0.474445 
6.624999 -7.038145 14.895722 
-32.499176 -3.466423 10.876868 
-30.249743 -4.054587 10.852410 
5.775571 -4.952326 15.869527 
-3.265156 -7.715975 -6.881397 
9.499268 -3.166717 16.726494 
-40.743717 -7.641866 11.300057 
-30.567822 -3.049187 13.423872 
-0.677067 -6.812833 -7.998678 
-40.419666 -3.907977 15.264585 
-38.208736 -1.281364 3.592351 
-37.901024 -1.999841 5.644759 
-12.672707 -18.116898 -15.621801 
-42.285591 -4.440096 13.766626 
3.157331 -4.998873 14.325559 
-41.484886 0.849730 4.844471 
-40.716846 0.097737 4.202512 
-7.821270 -22.627672 -15.473657 
-39.109344 -0.522344 4.506280 
-38.458046 0.541595 3.715428 
3.286856 -0.780943 14.442941 
-28.177822 -18.401049 13.438886 
-12.915581 1.934624 -2.449382 
-10.471653 -0.556022 -3.308262 
-13.148246 -1.635757 12.815408 
-25.925270 -11.176687 4.231724 
-10.716730 -0.869448 14.511983 
-9.414261 -1.295423 13.076720 
-6.979920 -1.942040 12.431210 
15.624013 -24.352142 -25.137007 
21.369265 -19.508808 20.686031 
13.853105 -24.663841 -23.221626 
26.276596 -10.813415 26.646229 
14.802355 -23.903288 -23.981707 
13.314689 -5.544437 -16.410297 
14.322615 -24.759531 -23.903070 
19.814501 -23.453585 17.057497 
15.465480 -24.083229 -25.828186 
16.524408 -17.849491 22.514963 
33.014233 -21.128208 17.386875 
34.050278 -17.631945 19.056305 
22.376764 -13.302263 22.670153 
17.736135 -8.583282 23.892216 
15.549759 -16.597977 20.276667 
16.639885 -24.018848 -26.533550 
14.601105 -22.075424 17.088268 
22.833538 -24.769480 14.915756 
14.126738 -21.668585 16.506136 
17.867638 -23.350399 -28.298359 
22.704479 -24.495031 14.776102 
18.537329 -23.160578 -28.681263 
26.231688 -24.819834 14.996586 
13.337941 -20.627493 -24.222731 
31.880482 -15.932290 20.657106 
34.741062 -16.358189 20.021151 
35.663265 -14.928892 21.617342 
16.348600 -22.371119 15.874399 
19.270300 -23.617138 14.910449 
34.429436 -17.809481 20.413321 
19.009975 -23.189108 14.998850 
17.723684 -23.205215 -27.482693 
29.209059 -18.897306 20.007229 
28.128372 -23.887289 17.069777 
17.005512 -21.304670 -27.016159 
17.160696 -22.189745 -28.202040 
27.924429 -23.231070 15.891838 
15.888595 -17.002577 -28.441805 
29.594023 -23.530407 16.256914 
13.152531 -18.375668 -24.610157 
25.219124 -16.089748 20.974501 
31.598001 -21.346727 16.643719 
15.197285 -19.566853 18.080645 
29.568209 -12.845975 23.404783 
35.867813 -13.974690 23.476730 
27.542780 -15.903526 22.909643 
16.732418 -18.718300 -26.780359 
31.048029 -13.028245 24.652737 
15.021698 -21.435087 18.151293 
14.315134 -21.409435 19.130800 
16.259844 -16.137728 -26.767258 
16.302773 -21.771160 18.912197 
20.876688 -18.005856 19.902306 
33.243065 -20.547606 19.077044 
14.355603 -9.045819 21.990377 
33.577976 -20.181095 18.540001 
36.042194 -11.386201 23.974604 
35.944843 -11.754371 24.603132 
21.944500 -22.854160 -30.612898 
19.702431 -22.701311 -29.794535 
20.327965 -22.633018 -29.392443 
14.944358 -20.278221 20.617332 
29.274633 -18.040195 18.889940 
26.705730 -20.520807 -33.060947 
23.380579 -22.413969 -31.850897 
23.196156 -21.947931 -31.288958 
26.280445 -18.612394 -34.463470 
12.615867 -5.058607 20.073242 
19.773558 -18.457991 -28.967604 
-21.405293 3.293020 -4.366442 
-19.149385 3.515484 -4.007084 
8.893831 -2.379045 -18.197803 
-15.304386 1.277692 -3.634362 
-11.014446 1.880763 -9.347812 
5.372267 1.404337 -21.948561 
3.240531 -1.107207 -16.171747 
5.577985 -0.176948 -15.266620 
10.604404 -8.040392 -24.985489 
-9.150809 0.327764 -6.152692 
-15.921921 -0.477890 -9.278181 
-16.531544 -0.668164 -7.594487 
11.430832 -0.677673 -15.299539 
-20.814093 -1.646299 -8.347259 
-11.175226 -0.101627 -5.400083 
-22.929964 1.024112 -6.713831 
8.934842 -1.114877 -13.978574 
-38.836178 2.816658 1.628436 
-43.225407 7.598403 3.633312 
7.450340 0.096980 -13.116553 
-22.263229 2.826144 -4.772801 
8.599032 -0.591481 -16.016928 
-19.460260 4.492085 -6.478211 
-19.078804 1.650005 -8.681911 
9.206944 3.987840 -21.518585 
-17.706989 2.121634 -5.827618 
-35.679974 4.561995 -0.691946 
-33.711594 4.656658 -0.326465 
-13.272137 2.224887 -8.614461 
-30.589323 4.767834 -1.258228 
-29.683571 -3.091379 -8.123173 
-36.270096 0.986309 -5.666106 
-36.434582 6.690212 -2.042340 
-33.009495 -3.436748 -6.822502 
-20.290178 3.070291 -1.860570 
-8.274563 -3.017558 -11.852529 
-36.996162 2.043857 -3.288407 
-18.773186 3.779578 -2.184316 
-7.545986 0.290128 -11.157248 
3.925561 -1.906357 -10.500657 
-8.072288 0.030715 -8.579732 
-32.958508 0.977090 -6.787367 
-31.154507 -2.391815 -6.302253 
5.976868 -0.641084 -13.011152 
-2.405493 -2.564335 -7.904076 
-32.012321 10.044900 -2.041273 
-11.203283 -5.376878 -12.953931 
-8.565388 -4.472071 -13.683014 
-29.726913 -1.692849 -7.261587 
-29.325563 0.523858 -4.828441 
-7.407021 -0.778190 -7.327005 
-35.071770 5.267506 -5.660852 
-2.405432 -4.762427 -19.132067 
-33.357487 10.981118 -3.074777 
-11.712956 -4.681189 -11.814560 
-29.364573 3.173059 -4.719165 
10.236969 0.876605 -19.373383 
2.144885 -3.385551 -16.521015 
-6.069403 1.037828 -10.644559 
-15.543301 -2.451667 -10.323932 
-9.004865 0.700291 -9.247553 
-13.166568 -2.220862 -9.924333 
1.561660 -4.492704 -22.569122 
-34.030617 10.290334 -1.982759 
4.584704 2.121801 -20.236225 
-3.526628 0.109884 -10.375172 
-10.784752 -3.248008 -11.847067 
-29.682865 1.799498 -4.459448 
-29.445288 2.456454 -3.236791 
-28.970642 2.505921 -3.510735 
-9.790592 -2.245200 -10.414357 
-1.556672 -3.980286 -15.572284 
-2.099060 -3.393802 -14.651383 
1.484153 -3.491575 -15.424947 
4.572190 -3.048231 -17.068838 
-0.112808 -3.121081 -13.765427 
-7.590358 -3.608882 -13.210938 
-6.704285 -3.867846 -13.648263 
-6.963608 -6.277379 -16.800014 
5.139642 -2.525367 -16.963263 
-30.504148 1.456484 -5.226727 
-33.161015 5.817858 -5.933516 
5.677649 -2.295494 -18.337986 
-27.196751 3.961015 -6.834863 
-3.601664 -3.608468 -14.045183 
-4.398570 -3.533782 -13.504675 
-21.956972 -1.973179 -8.673876 
-27.406876 -1.743606 -8.203411 
-23.954319 -0.683287 -7.017450 
-24.610552 2.523608 -7.808249 
-25.887676 1.953752 -1.740100 
-6.087648 -1.294798 -13.360049 
-24.170635 4.306382 -2.368885 
0.994816 -1.129160 -11.884288 
6.331901 5.531844 -20.471716 
1.849577 -0.386671 -14.249474 
-17.315987 -2.388610 -9.262866 
3.515693 0.775868 -20.960346 
-23.422201 3.978496 -4.830471 
2.244081 -2.744452 -9.384653 
1.580213 -0.963432 -11.241413 
0.029396 -0.612059 -9.986381 
-24.526114 6.270146 -4.780192 
-15.022433 1.374358 -9.471766 
2.969565 0.462150 -12.036533 
6.811176 7.107819 -19.167765 
-25.575823 6.013765 -3.562598 
-1.769716 -1.356687 -14.107100 
-21.516230 1.829141 -3.216646 
-11.830316 0.233351 -10.651647 
-2.379910 0.455365 -12.098133 
-13.597115 1.948100 -5.385261 
-16.102688 2.323431 -6.375856 
8.732404 -2.851830 -12.761544 
33.220612 -12.054283 -33.722282 
15.335481 7.675311 -18.966692 
41.828884 18.471405 -23.428991 
9.464195 10.280855 -19.608446 
22.318094 -19.096901 -32.066891 
43.167374 15.742453 -24.813032 
30.374447 12.913284 -26.334267 
40.250076 19.868521 -26.274466 
30.347279 11.650192 -23.321930 
44.021637 20.918083 -21.399818 
33.368896 -11.381162 -34.946175 
34.553825 15.894800 -27.023165 
36.464928 -2.282681 -32.009033 
47.137444 18.718349 -24.388920 
30.032084 -8.889522 -32.360363 
19.082134 -17.630362 -30.081850 
47.214340 19.451220 -25.259199 
37.045715 0.424134 -30.446051 
45.418114 17.020912 -23.387493 
22.878073 -14.924989 -30.023199 
21.909781 -4.245305 -27.323587 
46.373116 19.654947 -21.585524 
26.581257 -1.278342 -30.671227 
45.129795 18.418207 -21.229057 
38.084419 5.860840 -30.866476 
34.710400 -9.886044 -34.089840 
25.861488 -15.917376 -32.230148 
34.264606 -6.857901 -34.704224 
22.991251 9.118028 -23.003870 
20.057415 25.251207 -19.746935 
38.921249 5.530606 -29.798178 
26.736496 -10.958230 -31.319452 
25.068464 3.343927 -27.626539 
38.274815 5.924101 -28.859844 
33.849098 18.265444 -26.512415 
30.147312 20.847288 -24.517227 
30.361662 18.028336 -25.535536 
22.296209 15.079954 -21.936989 
30.117086 21.712887 -24.484669 
24.017712 -12.590897 -31.953300 
31.599562 19.942938 -25.166819 
28.947823 -4.612003 -31.133408 
24.158354 12.640072 -22.180256 
40.299614 10.648547 -30.289387 
33.137165 19.456619 -25.864754 
26.384974 -7.441244 -31.152977 
18.341286 9.130846 -21.572275 
23.199135 22.271877 -22.390583 
21.563759 0.495126 -22.894930 
24.522678 21.144737 -22.259638 
21.706120 25.316479 -20.525000 
32.997631 -0.208302 -30.428158 
34.613190 7.427075 -30.761549 
17.547888 7.354736 -19.003727 
34.258820 2.385360 -32.032917 
15.635936 11.017824 -18.659069 
25.150812 22.932896 -23.122541 
22.523392 16.808601 -23.162458 
18.099972 9.524167 -20.107435 
16.047192 -15.441026 -25.777891 
22.185177 18.631788 -22.775702 
40.878780 10.976416 -27.484394 
41.227444 10.007342 -29.178051 
24.084373 18.064587 -23.543795 
24.335052 22.106300 -21.368105 
16.360649 -11.581202 -28.417316 
17.231730 13.280801 -20.037436 
28.087568 17.368113 -25.077562 
39.056068 7.046561 -28.893501 
29.151922 19.270388 -23.772263 
28.499893 -3.441728 -30.481903 
19.687727 -13.265747 -27.820778 
12.222278 -3.145249 -16.863913 
25.265942 27.272015 -20.536421 
31.573839 4.046849 -28.537109 
25.915764 -5.140598 -31.365047 
27.199369 24.225466 -22.354441 
14.643859 -1.621349 -17.508793 
29.577686 6.289222 -28.550972 
27.190475 24.888622 -23.050800 
33.490273 -5.945503 -32.582722 
40.448067 16.598843 -30.238085 
12.410858 -0.039936 -22.503147 
37.160603 14.532182 -25.329702 
9.906509 10.565024 -17.964531 
36.487808 16.434153 -24.936590 
12.834420 11.703467 -17.072695 
17.304279 0.219310 -24.406796 
28.427132 22.225492 -23.886370 
29.031267 22.663122 -23.762495 
29.234228 22.626671 -23.811394 
29.691042 22.290386 -23.661724 
29.018459 22.573282 -23.530239 
29.215046 22.593187 -23.702944 
31.292149 -4.601616 -33.505867 
29.947111 22.469637 -23.928329 
25.370180 2.496351 -26.871689 
28.360119 23.179453 -23.462709 
29.092756 22.716690 -23.595490 
30.390747 16.367226 -25.905632 
44.489460 15.010543 -26.335703 
29.879656 17.272650 -25.332067 
11.596752 13.665090 -17.420938 
13.567864 -1.424311 -18.436356 
23.017635 1.956694 -25.482445 
18.192545 23.994890 -16.766073 
35.341129 -5.437256 -33.667519 
17.222986 0.729787 -19.582663 
13.862207 16.833744 -15.748635 
12.951610 16.345438 -16.495113 
16.214470 2.777143 -22.296379 
28.440462 5.501566 -26.157713 
17.060421 26.166550 -16.573555 
29.052301 13.971156 -22.753223 
42.340427 15.904156 -30.489826 
44.090576 19.075735 -31.455948 
20.596216 27.451216 -17.299160 
25.576456 5.102362 -23.400646 
18.572596 28.167118 -17.275810 
41.488449 21.300970 -32.218201 
20.836788 29.438011 -18.600943 
20.029623 -11.778405 -30.273003 
44.554092 21.131226 -32.242580 
22.980665 28.244165 -19.498127 
35.334518 -1.465568 -33.035530 
20.874359 25.395548 -18.932739 
33.994061 18.596424 -25.970943 
11.049499 -6.073697 -12.434632 
26.586023 5.482935 -24.585653 
30.658234 9.396702 -24.697311 
12.036633 -2.751080 -12.611995 
23.152622 18.043274 -22.429972 
17.968687 15.683816 -20.231150 
10.791687 -3.401484 -11.551892 
25.303438 -5.800552 -30.087782 
10.009636 -3.004429 -12.413315 
10.988161 -0.554714 -13.399966 
16.260555 16.483261 -17.945698 
13.947494 17.340363 -18.649389 
23.488363 5.686611 -24.177231 
34.615952 11.110488 -26.364416 
16.038357 2.507938 -18.515205 
29.423561 -17.814806 -34.027802 
27.706196 -18.439886 -33.464630 
20.642752 22.975603 -19.337652 
29.472231 6.143791 -26.494936 
25.292389 29.656055 -19.024944 
24.773422 30.678032 -19.111322 
18.523764 21.507130 -18.619787 
13.251283 4.720193 -19.211075 
20.082197 4.060890 -21.027374 
21.427820 28.993111 -17.366217 
15.208478 22.696342 -16.007523 
7.688222 4.786653 -19.172308 
18.187218 14.161781 -21.208843 
23.935001 30.731787 -18.394569 
30.118603 -16.656176 -34.428852 
20.275576 18.904554 -22.017889 
17.611172 21.768616 -16.836725 
21.060266 19.759958 -21.349707 
16.890388 22.310354 -18.805132 
14.492146 21.351070 -16.280256 
35.706352 9.499701 -27.695066 
16.093363 22.710037 -15.801381 
15.822042 23.556286 -16.238016 
36.015926 18.451170 -26.206621 
38.612812 20.074377 -27.914665 
28.675188 0.211272 -29.317795 
19.018080 23.058811 -16.770018 
30.630363 -16.050291 -33.955563 
17.215464 -4.673799 -22.131578 
38.882530 20.587881 -28.677691 
30.165854 -14.649302 -34.603081 
17.261358 20.532734 -19.468834 
16.967949 -8.955978 -24.328838 
40.224216 22.615183 -30.548216 
39.982689 21.458872 -28.186207 
39.099792 14.053155 -26.698280 
28.881144 -15.035715 -33.244648 
28.991762 -14.418962 -32.487736 
46.621811 21.340500 -24.158245 
43.365429 23.550089 -31.715818 
41.910252 22.891769 -25.623581 
39.783516 17.727955 -24.795803 
24.984554 6.803934 -22.218729 
45.716774 21.931053 -28.410410 
44.533325 23.076658 -25.490318 
41.448006 16.382391 -24.954060 
-45.304359 5.415617 11.288072 
-44.420368 5.253863 11.492516 
-43.457535 7.951709 4.462186 
-44.628372 4.180920 17.178610 
-45.827869 4.802116 12.578424 
-43.886936 -0.477758 15.563614 
-44.967804 2.407146 11.280849 
-42.689404 3.985747 6.918198 
-42.886879 1.311254 9.684174 
-42.938629 0.527533 13.983793 
-43.963474 3.183657 15.707285 
-44.686169 3.877703 11.284052 
-42.669647 2.060860 10.095291 
-43.455433 3.468784 15.590440 
-41.945862 1.500368 14.045928 
-45.482391 6.534144 8.354984 
-44.588940 5.148417 7.147447 
-45.308495 3.519371 9.509704 
-41.485039 -0.830257 17.481295 
-43.872437 4.303035 16.655870 
-44.527100 6.647544 7.904408 
-44.962223 4.956536 11.955467 
4.419539 -2.889926 29.292347 
3.616768 -1.048387 29.503958 
-32.353298 -3.832680 17.421186 
-15.728160 -1.332237 19.741470 
-12.775779 -1.995225 19.809494 
-13.970777 -0.648462 19.598223 
-34.155220 0.225368 14.324977 
-10.932010 -0.682024 18.181280 
-10.923550 -2.367144 18.377785 
-10.119348 -2.139329 20.662024 
-26.633951 -6.361283 18.580309 
-24.479670 -2.727626 19.612251 
-18.943743 -0.169291 14.566329 
-26.366667 -0.407207 18.115475 
-29.356098 -3.408517 14.578485 
10.770348 0.209302 29.312069 
-28.144548 -0.165594 14.404942 
-16.934477 1.887542 13.853703 
-34.976990 -4.114008 19.670382 
-25.077847 -0.180944 17.282888 
-22.494223 0.533498 19.406893 
3.984730 -1.559571 22.670347 
-32.648792 -1.268292 17.244221 
-31.891273 -4.612745 19.040789 
-8.851539 -0.542854 16.782755 
-9.521221 0.409912 13.918248 
-0.026314 -2.073785 22.055668 
-22.677561 0.729842 16.798859 
0.441525 0.152368 20.068760 
-29.528599 -5.805783 19.261774 
-17.886679 -5.457014 18.870070 
-5.386845 -1.459759 15.598690 
-5.558348 -0.584088 13.339526 
-3.350621 -0.815653 16.831573 
-36.196438 1.035805 15.690760 
-22.014967 -4.686487 19.576490 
-18.175505 1.164364 14.044644 
-31.844641 -1.267960 16.776346 
-20.612455 -5.054381 18.309237 
-28.967449 -3.317646 20.772818 
-1.366808 -0.915979 19.079239 
-19.238016 -3.312398 17.192673 
-33.217834 -2.543088 18.008911 
-15.398643 -7.381451 18.628633 
-28.095984 1.004091 20.141285 
-7.042368 -3.679226 21.237869 
-29.602417 1.514318 18.452536 
-6.553594 -0.890917 20.283363 
-36.285236 4.119037 23.327776 
-14.305044 -0.112576 13.944557 
-12.527956 0.810007 13.620442 
-9.034002 -7.516424 20.497559 
2.105378 -6.759118 27.584911 
-40.745193 1.641499 18.367336 
-42.257595 2.865618 19.442713 
-3.862699 -1.975296 21.378901 
-31.792904 -0.743027 18.530451 
1.318812 -0.844916 17.724661 
-39.266304 0.886366 17.454491 
-37.021561 -3.761769 20.546270 
5.150337 -2.036143 17.002468 
-36.433468 -1.994119 21.821270 
-39.541370 1.305623 19.351303 
-21.181921 -0.766926 15.962947 
-21.729118 -1.678135 19.972651 
-12.499975 -0.510615 16.901136 
-41.961029 3.247203 18.646568 
-9.105796 -0.194738 19.854662 
6.269316 -1.006880 15.425402 
-11.354753 -6.052586 19.343243 
-19.827736 -0.684447 17.656809 
-5.137193 -0.194974 20.001215 
-18.410172 -1.108914 19.486021 
-36.554619 0.943554 22.844341 
-19.214972 -1.506195 18.324434 
-38.807541 1.617304 21.601694 
-3.120243 -5.259842 20.943590 
7.530666 -9.745296 25.764126 
-5.595963 -9.753676 22.305279 
3.820328 -0.185005 20.323799 
3.590980 -8.550059 27.298565 
-16.795790 0.019853 17.644035 
-17.984619 0.200679 18.720070 
6.892437 -0.496535 19.765957 
-35.097084 -0.210066 21.759544 
0.199425 -6.746735 25.577900 
8.787976 0.409019 20.889263 
6.668171 -0.704268 22.046251 
-34.037537 1.123901 17.598831 
-3.151173 0.206009 13.778145 
9.249331 -0.453168 17.993389 
1.444029 -1.845700 13.978508 
-6.024577 -5.051187 20.187571 
1.507804 0.438847 14.792293 
-35.810566 4.524473 22.743275 
-36.776760 -2.839195 12.603827 
5.595123 1.570170 29.608740 
6.913857 -1.386443 18.640718 
0.455587 -5.073974 22.032101 
-38.561619 -0.801719 14.450692 
4.858048 1.336765 30.810312 
-38.096279 -0.780864 14.921808 
2.530395 -3.110741 27.997168 
4.869274 1.741059 31.291351 
2.418918 -4.988797 22.987328 
-25.287731 -0.324579 14.986593 
-15.179590 -4.891771 18.530216 
-34.590012 -7.868396 17.080246 
-13.160670 -4.696688 19.618948 
-40.534344 -0.739574 11.785749 
8.639970 2.855574 29.256958 
-21.821924 0.125357 13.724859 
6.128965 0.880306 31.215258 
-36.874607 -8.743911 16.670614 
9.609244 -5.229424 26.813644 
-11.599777 -4.608052 18.489410 
-9.127285 -5.800132 20.370825 
5.409434 -4.253430 22.701965 
5.208199 -3.490749 24.923447 
-11.736281 -3.838410 17.849051 
-39.577938 -1.713991 15.835939 
-10.647896 -3.785114 14.582043 
-27.295860 1.148510 15.957961 
7.577539 -3.450751 23.096498 
-26.529146 -4.777138 18.365984 
7.106920 4.953515 33.265156 
-25.746197 -4.611633 17.475668 
-11.137630 -2.834795 17.339216 
-39.506668 -4.515186 18.373703 
6.422036 4.174507 31.260201 
-40.104317 -2.439821 17.631931 
6.470118 5.150039 32.449215 
-39.726402 -0.459770 16.664999 
-39.432522 -0.558185 16.825871 
-16.014662 -2.823663 20.031029 
-24.098227 -5.642261 18.541677 
-22.943989 1.878126 14.912661 
8.004727 7.976903 33.355808 
4.319536 -1.112174 28.092548 
-25.167524 -1.819896 18.672173 
21.230194 1.106632 30.139244 
16.476274 -0.671833 30.173670 
23.977797 18.698248 38.969612 
26.418133 18.769501 38.894234 
35.501369 -2.999068 29.411871 
33.608841 7.599656 34.678696 
35.848736 18.551249 35.823528 
28.104759 17.804102 38.603363 
22.735327 1.087872 31.790483 
37.539875 20.335945 36.587097 
17.183420 -4.186378 29.307823 
10.459127 17.136261 37.008614 
33.348049 11.258836 32.917385 
10.991959 19.218727 38.811234 
38.494324 20.222652 31.302298 
39.041687 21.460194 29.668777 
12.281937 3.962110 28.115959 
37.618816 19.347776 32.494289 
11.975451 20.366869 38.724308 
18.153976 1.266321 27.752024 
12.603800 -10.873986 25.681269 
15.381616 0.096700 25.466873 
42.977905 21.191050 31.505041 
11.476050 19.624031 39.931946 
40.417141 19.084644 30.064095 
24.106215 -4.268392 30.172291 
31.907331 13.715865 32.823238 
11.937649 21.317497 39.805531 
24.745220 5.042028 32.392857 
41.732426 18.348759 34.521854 
11.365686 8.778677 32.194748 
19.668732 -0.119234 28.416323 
42.541382 20.697102 33.894974 
13.564962 21.966568 41.148792 
22.620955 4.583833 29.101334 
17.154989 22.358786 41.228298 
33.769394 11.459175 36.036644 
36.879711 -9.961839 25.371498 
35.313858 -10.028088 26.735054 
36.696281 -9.042790 26.218885 
41.466896 20.920315 28.312960 
12.957150 23.398258 40.730221 
42.115120 22.908302 31.039425 
17.075064 3.736486 28.152657 
17.802126 21.513878 40.190620 
28.975355 14.425325 34.509430 
36.990818 -7.359376 27.134407 
31.314466 14.822720 33.865562 
15.055355 3.516205 29.953297 
14.495777 -15.400926 24.014986 
13.785425 5.797577 28.136553 
11.560678 1.888748 26.879410 
28.936083 15.749018 36.211891 
37.010780 -4.522738 28.212645 
39.017059 23.095575 31.272245 
13.156453 1.086945 24.262886 
31.573811 14.087893 36.313782 
31.506126 15.922810 35.159714 
18.179182 23.074097 40.583160 
26.506081 4.065818 31.300119 
33.386280 15.620145 33.418987 
9.197636 12.648357 35.670704 
36.160069 -1.594295 28.775160 
36.523842 -3.022549 28.179491 
35.736134 0.749742 28.467590 
16.175816 25.851542 42.596416 
12.257163 12.077623 35.231976 
31.719055 -8.058249 26.407724 
33.561512 -3.190340 27.812475 
36.182835 2.522166 30.493563 
19.893269 8.156036 32.447754 
20.107124 7.434413 30.607828 
20.892927 24.243937 41.192318 
20.684849 9.048330 31.869123 
33.582371 2.258283 29.710308 
15.300522 23.975887 40.355606 
17.028852 8.697694 32.150318 
36.328079 2.979705 29.430134 
10.626143 -2.288173 22.047291 
36.101295 5.162430 29.692322 
18.050348 27.191654 41.717827 
10.256053 -2.319342 24.086773 
15.168294 25.850227 41.728039 
14.491566 18.168085 38.310299 
17.668211 27.413450 42.421993 
20.132656 25.402893 41.233845 
13.020443 18.219658 39.810455 
24.987452 0.200497 30.356457 
9.343798 7.589664 31.714199 
23.235106 20.832340 39.417458 
14.319921 12.176443 36.482838 
8.171587 7.750630 34.511620 
10.367163 9.177713 36.332340 
16.379538 14.578885 37.582321 
19.962109 16.484058 39.145752 
15.894948 -5.582083 23.896412 
23.301336 6.739762 29.724459 
23.490992 9.372540 31.150009 
21.855476 -0.689433 28.843548 
22.514540 22.516315 40.082069 
34.230942 8.023651 31.911226 
37.788940 8.733724 33.017868 
28.351646 -5.704240 27.696888 
9.895622 -4.319431 17.823421 
12.112976 11.593408 37.409828 
9.957465 12.554118 37.197624 
36.416023 10.209754 31.673805 
18.603256 17.745146 38.410992 
20.039463 28.173460 42.463970 
10.945802 -2.326394 19.916365 
37.727066 9.448606 31.630848 
30.685673 7.664963 31.957541 
16.322098 17.812918 38.524216 
29.477430 12.208097 32.366154 
16.186234 18.870785 39.274189 
34.177467 18.292929 36.577969 
34.251225 19.095289 37.820152 
16.725666 18.096422 39.783298 
23.683456 -6.654670 26.911177 
34.963657 19.202299 38.086632 
9.724741 14.160537 35.861328 
35.108768 11.836639 32.537323 
20.458555 17.504574 38.606071 
19.031496 19.071924 40.333176 
18.613283 19.227953 39.504688 
14.771886 9.615712 34.286186 
37.996090 21.218376 41.534691 
21.168362 11.016423 33.875088 
40.836926 16.832479 36.236446 
39.391243 18.350174 38.863613 
34.464500 14.440187 32.882149 
36.029301 13.681316 33.060913 
25.594475 12.974312 37.101494 
27.299738 9.793790 34.649494 
12.107534 0.021420 25.469154 
18.294931 9.215224 33.588291 
18.522400 9.957423 33.389088 
40.534340 21.697264 41.745564 
39.084354 13.521214 31.699522 
41.411362 21.730848 40.442223 
23.439615 11.284533 32.887486 
21.672255 13.702797 36.646957 
22.684725 12.050529 34.102688 
39.830280 17.072037 31.225334 
36.122074 17.460041 32.686211 
22.990171 15.378633 37.616219 
16.355234 11.221057 36.517654 
36.109867 19.521877 36.992062 
24.711172 11.988983 32.861187 
24.001640 17.043289 38.283321 
36.251480 15.615880 36.493813 
21.821611 10.808787 34.986809 
8.485073 0.078798 26.935316 
25.469694 15.984679 37.032669 
36.414978 20.324600 37.853241 
35.663143 -8.123881 25.973989 
38.486351 22.978271 35.919140 
38.513130 22.435843 32.340427 
17.569199 11.650711 35.545513 
14.140918 -0.270303 28.710615 
31.898079 -7.050550 28.112164 
20.153816 12.308621 35.228165 
17.934637 11.500588 36.310268 
36.335800 20.676300 38.761765 
37.740482 21.537298 39.550823 
24.333191 13.708029 35.068604 
19.429182 13.567385 37.134125 
37.163773 21.496956 39.382370 
20.067682 2.828957 30.895384 
21.343475 16.607872 39.751385 
40.620819 22.409065 40.222179 
41.402557 20.676397 38.518070 
24.813723 14.681486 36.182411 
26.184246 14.185954 34.960957 
22.904299 20.537161 40.151196 
24.857841 17.489580 39.406498 
40.183334 23.723501 31.214571 
24.608711 19.453157 39.570034 
42.225563 21.078611 36.042797 
41.514805 23.202093 36.203671 
29.385092 16.878706 37.515514 
30.309555 16.491119 36.915611 
29.774754 15.909031 37.420410 
27.932188 17.731451 38.041409 
32.511391 17.930737 37.509670 
32.336098 17.452032 36.851086 
-44.345669 7.553090 5.133532 
